ply
format ascii 1.0
element vertex 304
property float x
property float y
property float z
end_header
-0.26385829927292004 4.151214403743814 -11.000342454137813
-0.044077155272514656 3.9718609320963276 -10.591355675144566
-0.09155254512409616 3.772170599673327 -10.069711124677633
-0.4046668158285574 2.673566152290501 -7.233551861708496
-0.19891066457038087 3.0811274651942933 -8.695823750464223
-0.5347975113906023 2.3876088929298245 -6.780822877887433
-0.32435567304112045 2.587698872442925 -7.372615201117275
-0.38862881914264236 2.505546718574286 -7.16427219042693
-0.3057957809038506 2.3694001756281216 -6.957638097967887
-0.5414438443490572 2.327530124404471 -6.865190488491012
-1.0842530535210022 2.578185046491421 -7.607052505057195
-0.49623422069022777 2.2853736429441676 -6.8559084889415445
1.1263178254651982 2.821194091466176 -8.548073997110642
-0.5077735312908698 2.251670876853407 -6.857151551678025
1.0994790429854513 2.835200889723259 -8.677360071262402
-0.48515429867559007 2.2422810871137138 -6.861814566472962
-0.4819730569193269 1.5822351989300332 -4.83374672784659
0.9361355184978921 2.7923412660065576 -8.620564623160504
1.1211156919478436 2.75952154391134 -8.599944858417123
-0.727953080900503 2.2341659978698765 -7.002717746811769
1.050541201670325 2.6909635019621128 -8.613209401949359
-1.378480421898558 2.4470267516919204 -7.8336760623025485
0.8501319308007722 2.587490938250945 -8.318567515628875
-1.3299383208194562 2.4295222168032353 -7.857064479617131
-1.371035161103235 2.271080812817951 -7.440163096281153
1.0802949808356488 2.658674956766719 -8.73970179840824
-1.3377684830686847 2.2789733579860116 -7.522248783926581
1.2004471380101025 2.498285161809974 -8.351906877404327
1.3429558864066347 2.5256171914874566 -9.056116550707994
1.1147237066571996 2.375786533283363 -8.538554919070593
1.2433416747025015 2.402147916495405 -9.222245278745238
-0.10838319818554276 4.304265350513973 -16.905275065350903
1.0510951435843 2.1031149786695953 -8.395487199935827
1.1429341165604763 2.026856247543875 -8.147687477563094
0.417877012458542 1.999679011202737 -8.044891446026151
0.10327924249966586 1.8134259927600422 -7.3302461096809
0.8444526950139752 2.4517334616690536 -9.955716401819775
0.37660779572048164 1.9621105677599808 -7.977536641899742
-0.026927828024723544 1.6452524801710915 -6.70034654017649
1.1376649911734669 2.106322493155177 -8.629031739779396
1.0494877457946548 2.2638614544689566 -9.231855944089402
0.7443673140399283 2.16458334301817 -8.937542197217306
1.0591593164348223 1.9955445316506712 -8.443054431354458
-1.7916719482388919 2.3567489394601813 -10.013912567571944
1.1135498260714065 1.9223328813972889 -8.90524777700028
1.5510412408797403 1.9789249844365664 -9.31907647968081
0.4856001502421132 1.5341107907284695 -7.402337077674708
0.5262259232225641 1.4845125528996563 -7.428953601392866
1.6565758121369165 1.6742149184117554 -9.846834623053757
-1.9988291927642414 1.4649555715838873 -9.586460937444254
-0.49914211587786816 0.8113533481319364 -6.751398576630129
-1.063895015332172 0.8246572436884596 -7.14078417833439
0.9113427610692528 0.9553487403302969 -8.35987712244378
0.7530370422398577 0.8517680798389017 -7.4598170917230675
-1.0572469393876949 0.929536521521065 -8.253187143229635
0.3347352508482798 0.8197818233378147 -7.2582402077071535
-1.1116148212295731 0.8105053113072623 -7.218785550490911
0.42152951025983043 0.8092365961341027 -7.319714126844962
0.294224702778449 0.7597551546746907 -6.907080480802699
-0.5730154739314404 0.7607010072775195 -6.841503381103934
0.6952223299687386 0.7851006635357368 -7.262751431852161
0.2597711425064766 0.7485218914063007 -6.9101070837348555
-0.9238581908290427 0.7724915499937369 -7.24530297262292
-1.1725699245812913 0.7856901820553401 -7.365307781546984
0.7092229504292682 0.8760158930274399 -8.280029256327774
0.1792409919115852 0.7259940116252837 -6.915999629629429
-0.7413079235494238 0.7163880335711453 -6.804495940711853
0.9228416301311767 0.9135585910141183 -8.735947155701812
0.4367952314946265 0.7221416431654143 -6.977991100755714
0.23152597658945007 0.6968920882282541 -6.758075144270489
0.9203629068115167 0.8181817243504942 -7.9401731101954915
0.12191352564438651 0.7022601337735745 -6.859003045825626
0.061324931573556785 0.6609951612585802 -6.490537480127422
0.5143466807245871 0.6971891023015966 -6.907814805899891
0.04002911821504801 0.6419965844160126 -6.367987138841863
0.8295837944317138 0.7934692337589102 -7.9589060501221915
0.6752413820993061 0.7216429122259452 -7.292952450882248
-0.6400702082988483 0.6999023918560695 -7.0643040588786175
-0.6521710189261827 0.6735986441471216 -6.8218183352463075
0.728115507979471 0.7097521205900149 -7.35235678567744
0.893569555640591 0.7773325392641777 -8.057985347961598
0.11010654654510693 0.6576373238352705 -6.923214340506068
-0.33130771494662176 0.6202811953912324 -6.573172374736781
0.8127426648340211 0.6492994299072414 -7.5563330926634595
0.5988436478437731 0.572955350235234 -7.40429733133909
0.49779565526528724 0.5619046514394428 -7.348141010442446
0.5248641422867617 0.5222083415164372 -7.235275067078383
-0.8384558441287043 0.5119931949676598 -7.050390225881036
0.44502913384691484 0.5047243467540239 -7.092828156760318
0.7189120988261859 0.5240719280257821 -7.651356234618683
0.6805242757596828 0.5054226014495021 -7.489971044061125
0.6235476726840502 0.4807772917678571 -7.245047587552254
0.8090354267999174 0.5004861947935045 -7.766171663685162
0.5380467231386925 0.4505492167151065 -7.419498581572259
0.3931804339711076 0.43916290308840567 -7.255205671366332
0.8725314614806294 0.4479675388347049 -7.756286000745148
0.8032772092730274 0.42926517119517915 -7.472026643986104
0.647277180385687 0.4388526456598515 -7.5224556027983285
0.42510660612366113 0.4161087148530326 -7.365132361834092
-0.7530852507494525 0.408590871087688 -7.247186932852296
0.5535712029842762 0.4087263341678801 -7.4426510268052315
0.6086976879499053 0.37724849756079093 -7.23129939400763
0.3518613564462567 0.39214642390709137 -7.373949111304548
0.550481683084425 0.37650068870661557 -7.422016680467249
0.45516573478900935 0.3847848254324465 -7.456453109146718
0.07705200742273216 0.35530844136231 -6.963228090025533
0.9400518073300064 0.39661917975739575 -7.876484512262532
0.05293366314946035 0.34165925412296777 -7.027469585308894
0.9016848173122922 0.3839928262576593 -7.885502644501859
0.6482198281910031 0.350963069978686 -7.408820274466983
0.5450392439650266 0.3571464943198205 -7.518390863163606
0.2394123289857943 0.348686335523636 -7.363726718113744
0.7906810378720923 0.36069728968663106 -7.700061756712434
0.5105134323875125 0.3421417726790467 -7.35934719910387
0.4740220492457343 0.3424183801229997 -7.363919329233427
0.4219098763572523 0.3282284190896252 -7.10554801247473
0.2623404695051665 0.320032927133592 -6.9548574468384485
0.1600802517738799 0.3225970036647604 -7.107586201906608
0.8349226466338828 0.34502386232121796 -7.769099244179133
0.1901610637495944 0.3269556873409407 -7.299969862912731
0.053357035452070156 0.30318709457288173 -6.7481605328873275
-0.72088101462669 0.3139075677819415 -7.153861155625569
-1.00021854426844 0.3206995988839221 -7.278321257339579
0.2416529605519771 0.31930942636473747 -7.387564990981918
0.12786554530059935 0.3105356499192061 -7.216165959255401
-0.7920181185329358 0.30860520749908515 -7.163253528889514
0.400647539603308 0.29027714907796215 -7.175504660371778
0.31065285788433594 0.31610830682132707 -7.570263589739628
0.2784932519458708 0.3068918819387386 -7.38565287503035
-0.6782020021367432 0.2933174391687079 -7.096373368004464
-0.8018460381397395 0.28677277355703257 -6.8502378324975775
0.43757786458619385 0.2937330618748597 -7.371119629454538
0.8304370678096878 0.29147848667577836 -7.595284170362226
0.5661935960844857 0.2849008831452999 -7.4479764708230825
0.49245299751538174 0.27688916742547215 -7.274768542704577
-0.6035472708143236 0.27432917822514086 -7.192983306347193
-0.6317075774227956 0.25852637278722745 -7.105537607266679
0.5429231565721652 0.2686689483774036 -7.645356607224522
0.48640373849077734 0.2566756072381452 -7.367407599942624
0.06458801023565042 0.23610566138555772 -6.752020007198647
-0.7690989025335234 0.2498994706617191 -7.172533502865013
-0.8269480094466315 0.24279723528502234 -7.144146495411303
-0.9908013600589407 0.24795835955167794 -7.400481137801431
0.6276062748070462 0.23487974353176563 -7.441472103361069
0.3193255858971005 0.2368783215436325 -7.47955804693569
0.28733701422395796 0.2296973494570464 -7.2993810256943865
-0.8360859991648052 0.2190721089792474 -6.8506389267504995
-0.7940542716230896 0.09635336774665712 -7.183211828474754
-2.190257308501309 0.13417009554430456 -10.273005633909648
-0.1992553896305595 0.04774281501082291 -6.2087694131719475
-0.34035782481936894 0.0033794742038643147 -6.35028889971156
-0.20153310489615867 -0.034246304193497 -6.2787378916421055
-1.030659968878415 -0.19558692165616778 -7.32727950467028
-0.25856211696016795 -0.22899394856665362 -6.182061573382707
-0.1909851620203314 -0.23432942290297754 -5.998565514662703
-1.1021871893388169 -0.3365307818082885 -7.237666753453077
-0.07657813405893327 -0.44188012445598335 -6.3810382373696255
0.13210149255383413 -0.4978024392568552 -6.731361984230948
-0.13623964673480232 -0.49642029983691627 -6.655033738868109
0.13535231092576944 -0.5642978591981791 -6.954839967371285
0.008733255116964878 -0.5592286739951922 -6.667628385207401
0.05432020621774725 -0.6048841137271131 -6.819231029271251
0.030904723654378463 -0.5927191824175717 -6.668609580395142
-0.8614810380276023 -0.6346590715276369 -6.604275244053821
-0.0024778529822827577 -0.6958299752949585 -6.827797202084336
0.5388239853004744 -0.7582091320394281 -7.380889360935233
0.5994296301495547 -0.7701639790431141 -7.371321217576084
-0.04745101990334116 -0.7335949931244415 -6.755559889996064
-0.08118185882889722 -0.7333833677472323 -6.756635477066099
-0.1301589670880255 -0.6972602530036689 -6.397875421055439
0.552836991680344 -0.8648680946359559 -7.573976124458428
0.49642716403495046 -0.8355680665687808 -7.300954442344218
-0.03549185423277412 -0.7740952826837189 -6.60970167994787
-0.0025263615135160955 -0.7933759208202802 -6.68259702360203
-1.5208122256337564 -1.0428323802090262 -8.648476303088678
0.36950384130743164 -0.8796537621361817 -7.2174527045393395
0.32365666602351306 -0.8585562050835208 -6.982882389057136
0.19037772608674508 -0.8447942190905318 -6.82366853152487
0.5952000728790863 -0.9296550448422698 -7.474550834674496
-0.05695371584247394 -0.8318305892845783 -6.542503340497109
-0.1985300267607622 -0.8307109763761098 -6.545581133273239
-0.12230825468540923 -0.8423260996017482 -6.545184708472653
-0.17246858074662663 -0.8317701948692681 -6.416748759897693
-1.4840015956218662 -1.1106829498049309 -8.450272830842213
0.558567991151929 -0.9928757410229503 -7.4845755877597435
0.36714050431951706 -0.997518096582889 -7.15299220111947
0.28996051330395733 -2.136795269581716 -14.350657944269749
-1.430736861651591 -1.2725452920048892 -8.458889418923345
-0.09287830482830939 -1.0503936019816795 -6.777376927823969
0.5583938744845431 -1.201780673878533 -7.672952428774566
0.5034711996472703 -1.1685096246044266 -7.410259595168182
-0.31844889797927733 -1.0705633664619876 -6.780330534531923
0.18493912365232784 -1.2824219692502978 -7.022792537537137
-1.3322388684953061 -1.5583546528934167 -8.572149302276257
1.0703269637193689 -1.63378747438427 -8.851195564916068
-0.16253238651473562 -1.472959644284789 -6.894897603313993
-2.455461556162707 3.7085177192860486 16.384869881908774
-0.22429224148313132 -1.333716889030312 -5.842274507991781
0.18975282785740955 -1.6496604170505524 -7.149672210746459
0.18832829002192208 -1.8576207213487201 -7.602543300714122
0.04460905407933091 -1.691751765289314 -6.909596171775537
0.009737097586387966 -1.6370622874279785 -6.680194832396344
0.07989412321919809 -1.6997016100299114 -6.916373104583464
-0.29584369757324147 -1.7622727585997107 -7.084140195163995
2.708038319337905 -2.9080516876539666 -11.156387749976927
3.2674745603575066 -3.21818055348164 -11.834945959736801
3.267498811314856 -3.378710774429998 -11.83742124341393
1.8622279337823973 -3.395990843236672 -11.439328724574546
0.3581950546285417 -2.9771026268884495 -9.021315803321954
-0.4501884825223107 2.819228793957997 -7.586427305782125
-0.1364628099553693 3.119363572466303 -8.450814761898476
-0.5656022122675048 2.608491624489611 -7.147267844310484
-0.5243276971365939 2.387753953706132 -6.922421550942325
-1.0233688310562814 2.645198812438331 -7.723140439355241
-0.9505639844554301 2.513354529571354 -7.557651672796776
-0.061388836674882985 2.236739570396431 -6.809281537700811
0.9657494145749207 2.6539456867850126 -8.500552348524165
-0.34844825828869075 1.9599293076296296 -6.690200138787691
1.4751318643844153 2.4595971996629036 -9.03089975443659
-1.3507380651078535 2.095747668316574 -7.6815190848824075
0.6563109594251767 2.09895389526067 -8.562190287828768
0.37660779572048164 1.9621105677599808 -7.977536641899742
1.7614273502993 2.376107894003743 -9.81382887177676
0.5704101335553808 1.9095454644801666 -8.080618533493531
-0.49347537636668465 0.8213952557516732 -6.8285306376009345
-1.1143949454359363 0.8469544164733096 -7.468460607379632
0.3840054777237464 0.8334224773620136 -7.576862530781353
-0.771438340776909 0.7280785672865638 -6.858179549564834
0.7979204901489081 0.7677647892816057 -7.4309556060085065
0.7935844918843852 0.848293517487714 -8.153374739108866
-0.7701662747448084 0.752634792088414 -7.277353401812805
-1.0650720481945126 0.7434124675797901 -7.149507565806927
0.5870225005070453 0.7334750591575283 -7.236566100179053
0.029112987338698604 0.6346049734589906 -6.301495733844151
-0.9301814458636892 0.6949566983972504 -6.86801567411859
-0.19185095534759555 0.6217048553099941 -6.637011018090745
0.25991989905650625 0.6228797973356547 -6.9177374830710034
0.7687057450640757 0.5953116321322304 -7.375729592190723
0.5988437005737306 0.5729552867698017 -7.404297690596546
0.48890185552363574 0.5585469108417088 -7.237688566355087
-0.8374866554602758 0.5160951733407898 -7.030373297643054
-0.997508478246045 0.5419707212341932 -7.345251503262239
0.9065676964830774 0.5850777840893502 -8.179172034517617
0.768054997003395 0.5347706571653074 -7.876653502189808
0.5642338629757673 0.46348711492222244 -7.606513217518325
0.4542645097609227 0.42677786114996397 -7.076010675135408
0.427523164787729 0.4514442497353823 -7.432662849314269
0.7929788840331489 0.36780945615282995 -7.598761357902606
0.48940103383984396 0.34217488976817756 -7.249865829348231
0.353727357808733 0.3532250388815178 -7.44614477631359
0.2547535881200274 0.35373972360077643 -7.454272872333757
0.05446947324842971 0.33695743687333146 -7.04719768356607
0.5506710635727554 0.30247566233741874 -7.426154115602592
0.45246215063619866 0.30319231420972254 -7.438777273302308
0.49245299751538174 0.27688916742547215 -7.274768542704577
-0.8631875669898925 0.2621192041272782 -7.051234697911085
-1.116469963811183 0.26784983623103364 -7.168936639212911
-0.9537567709944486 0.22909222438129026 -7.388886242200012
-0.20153310489615867 -0.034246304193497 -6.2787378916421055
-0.7045909290196595 -0.13447310926379097 -7.113263000243544
-1.0309186462085391 -0.2536861405507107 -7.24395306112553
-0.17499369043948737 -0.2326052968866268 -6.111026515469531
0.11955840221912661 -0.4929278217317238 -6.657263247443748
0.03025528322812654 -0.4832528721473243 -6.517573573579146
-0.03418390635198698 -0.5378676265672943 -6.385431840851729
0.053132232909760435 -0.5980959530200727 -6.804951554911769
-0.20185007406600292 -0.6116226898397975 -6.336082465851892
0.5202120528353992 -0.7497446598955183 -7.29232891060252
0.35820347967822347 -0.8116295756756331 -6.975980184870857
-0.035938529306233424 -0.8491239172960234 -6.687567221495895
-0.16352053307349823 -0.84017817585092 -6.485922222144231
0.558567991151929 -0.9928757410229503 -7.4845755877597435
0.3671857845010838 -1.0215452178874052 -7.154388045966673
-0.3404862553229203 -1.0440168634112634 -6.5680199442613905
0.3959761849502238 -1.227916256729262 -7.249468986685053
0.17125393642228104 -1.2682627888659666 -6.942225360901248
-0.14913223457523317 -1.3310551926399636 -6.808149701940823
0.2213115391444337 -1.4442646014639282 -7.04059462940698
0.10459165316808827 -1.5128352444208581 -7.127104392936471
-0.08227482929867569 -1.4853330180909645 -6.893332478684546
-0.20182859516289064 -1.6365424484524012 -7.066504536549509
1.474891969546292 -3.055033250089185 -11.265882707492919
1.9169213754729502 -3.4596517950183396 -11.656336106727798
0.3381275122791318 -2.933898553616695 -8.888664332637637
2.109031825983516 -4.334526870345008 -10.463320092629827
-0.9337594705111247 -4.580580541290969 -10.187331374283824
-0.4501884825223107 2.819228793957997 -7.586427305782125
-1.0013384400631575 2.3645102733142673 -7.5611398940501
0.8971778356173536 2.562380638143847 -8.39168041048639
0.8090699089899127 2.29754564564393 -9.344733950014911
0.37660807348198444 1.9621109762000954 -7.977538241963312
0.6134583306780252 1.9908382262765025 -8.299245108476748
0.3628354014392847 1.7343343793122281 -7.684305628009455
-0.572851606498955 1.4740707697452622 -6.702449753795253
0.7589301106513338 1.6149329431706134 -8.080187739846062
0.27412286057862867 0.6725542891174624 -6.638646005022474
-0.2635195462440027 0.5992605783599179 -6.802526750663659
-0.6701410510963968 0.29497343984353863 -7.249622881570161
0.24704330872020697 0.11087387250107913 -7.1536513180131465
0.008474750062001601 -0.45713433275623133 -6.447215417278014
-0.18475387970120655 -1.0402476745023366 -7.251216140675979
0.6958343241019815 -1.9506796664773671 -13.027026733164327
-0.15128061926571645 -1.3072435777978393 -8.03894123703392
0.3959761849502238 -1.227916256729262 -7.249468986685053
