ply
format ascii 1.0
element vertex 835
property float x
property float y
property float z
end_header
-0.4391308646721215 -1.1018269543791828 4.404500306575868
-0.24202451133030672 -1.0405463010704357 4.165655063216699
-0.08629593944755609 -1.0051525945230364 4.02470005565592
0.3172319025551454 -0.9689195188168629 3.866921372320741
0.36269188208885506 -0.969640159941466 3.8713863110941347
0.5121639137185404 -0.9707431864912598 3.8813766510445924
0.6524721086775946 -0.9766835488555258 3.909129839898681
0.2826940924721738 -0.9533410097683146 3.843471392357898
0.5938554585135024 -0.9728792528233998 3.9047492307055287
1.1119624117277733 -1.0883767750255136 4.384995715319518
-0.12117697194300803 -1.005052527202646 4.075053342420325
0.26546550219036713 -0.9489601252134029 3.863077429708633
0.5745851035112157 -0.9582133302667644 3.910182528759153
1.0681193575808197 -1.0439763149028107 4.269207161492327
-0.012704594204471509 -0.9822970847796422 4.044286483244213
-0.025759928677307864 -0.9917653128808902 4.093993836403596
-0.07246082931796766 -0.9683759319420613 4.027875336257069
0.2692405534413097 -0.9431073630249736 3.9160756619420543
-0.4563478807713451 -1.0610077230320911 4.435063676939007
0.39952814621776966 -0.9131893464804235 3.8549411768553656
0.5063005578377896 -0.9200943786304687 3.8860606716320065
0.5322522158743488 -0.9221780177704094 3.8824795535636003
0.26545540797114664 -0.9089835981373121 3.871743850520465
0.3413923673220727 -0.9061666525498369 3.8505677779046876
0.6533644894759458 -0.9193791668434486 3.9143984569106314
-0.061247920078407014 -0.986171017537668 4.208991966932842
-0.025758966110408565 -0.9511680814525721 4.069722891359187
-0.005557013698644586 -0.9312267257305321 3.9903821977959044
0.6208933361317253 -0.91330965894263 3.9149964181906163
-0.04746915372009658 -0.9629912874989301 4.1585397327087215
0.3285682045793047 -0.8933833553108599 3.8506331303087276
-0.025797330297443577 -0.9378469607894495 4.07141961539543
0.3592674079130455 -0.8998861768587859 3.9040707996826725
-0.6768478981124944 -1.0229293090537601 4.4726763148156845
0.3373886594972497 -0.8870256874128217 3.8776161488299206
0.5689399428901695 -0.8944693331188333 3.916132995779343
-0.4929284917124884 -1.0074267418626748 4.430300778066877
-0.0722792646770894 -0.9088330442224766 4.006858485012158
0.5231839727300768 -0.8902823704581827 3.9107541364981278
-0.14013129686525894 -0.9035479400349579 4.024708825656492
-0.01167567713237827 -0.8810123939451519 3.907924315147277
0.33966795115143844 -0.8719335725125787 3.9095564427843095
-0.60322701593397 -0.9849730892596159 4.4273948838953805
-0.5004808328050789 -0.9851046538367046 4.4311631271651235
0.007692100388772771 -0.8563959050175525 3.888177484486939
0.05445468513030721 -0.876881629649404 3.976287965828436
0.35705925808096595 -0.8533877346049837 3.8871919892775852
-0.46184684458415115 -0.9580851354769915 4.413124983519527
0.4647809322311734 -0.8432723478187796 3.9173184347600962
0.49757965715577324 -0.8433754627350435 3.9188494862487167
0.0558304159600333 -0.8697867076759184 4.062028762720961
1.3967993143697033 -1.0187685235254396 4.838009137935032
-0.4367246103862895 -0.9108219186141077 4.386814902005422
0.2879191261750176 -0.8029442764727365 3.9072429323095403
-0.6900185942108416 -0.8839946627982112 4.325116625895297
0.2972470952714732 -0.7877731552945714 3.8539867373676624
-0.4418723185023855 -0.8870370710173345 4.431794825770108
1.0379404392254221 -0.8511483030345522 4.289920487166824
0.008066242381432831 -0.7896570311747321 4.005885048194936
-0.49439051708099313 -0.8713277914787425 4.445457356065477
-0.045680966277139246 -0.7928456891224298 4.051379173476417
-0.24456596428723898 -0.7976821885850308 4.220526966166394
-0.7846731329999058 -0.8321055103886876 4.449762105279646
-0.7563142202662599 -0.8291924368869618 4.417529054621939
-0.44542442018811246 -0.8237403643336075 4.397796760527939
0.0013996217937807254 -0.7488732666999176 4.037930111083826
1.0045615632075662 -0.8027150452771812 4.3299225636341205
-0.4060091581469175 -0.8186649888267786 4.448373832410947
0.07565686060944465 -0.7445510615917087 4.052176910020876
0.1284609318342526 -0.7307300005409328 4.001368407789555
-0.7837809538980361 -0.8050845518981203 4.4478800558062925
-0.39619714711054715 -0.7904818070464721 4.4198349506461785
0.9636284947017729 -0.7638713201140869 4.276777286391551
-0.8047839215175179 -0.7886084560053805 4.440653078464998
-0.42103424338812623 -0.7811926138462968 4.449298528269564
-0.3532820771358045 -0.7783037696378303 4.435494734330907
-0.018768375297498696 -0.6977456916756187 3.983870528761072
-0.36830280188991826 -0.7595700722082844 4.3563074685895495
-0.03855069886729734 -0.7086328058821446 4.058229007529086
-0.7662437025127686 -0.7559022484843545 4.387912896267438
-0.47736750767992747 -0.7380673678284324 4.35776910639157
-0.3176643426279435 -0.7320717198677544 4.347925700192515
-0.4494383973993523 -0.7325444798374017 4.3685539418467165
-0.43280140993854815 -0.7374506481175822 4.415938373934617
-0.33586921341354115 -0.7242348956086124 4.406855318615584
-0.012254613028312988 -0.660238927691711 4.075015151887236
1.4849117549789637 -0.7758227245534239 4.83668505487784
0.029113063205587097 -0.6504399296092677 4.078754438722927
-0.396476471016825 -0.6981016688983372 4.427470912731802
-0.3362788253415782 -0.6951358778070515 4.411176514782469
0.5007605902930188 -0.6631879000737086 4.218996291784855
-0.032817483159844896 -0.6376183571757403 4.102942439205854
-0.4765506676081983 -0.6767115487530885 4.4104207174330865
-0.3850223718216024 -0.6698845728479115 4.371129201113966
0.022042012931957455 -0.6252593260412076 4.051920391527644
0.1920991966492146 -0.6292685155630771 4.077927443204796
-0.40402022033022966 -0.6757878121792456 4.428533354723964
-0.8545372040711243 -0.6695586074166041 4.430795914961693
-0.36275390801044693 -0.6590673919463382 4.373505919173151
-0.33181175752821707 -0.6549396045424578 4.349017895331181
-0.3029137080175801 -0.6354088560026708 4.253680953463837
0.23326210941455322 -0.6098250034731552 4.085066870214293
-0.8753791341342159 -0.6595128023073393 4.461880353901529
-0.40139941490493014 -0.6483073887499474 4.398022919247007
-0.4157632722882356 -0.6403238412807561 4.394580139261055
0.3873460891360812 -0.5831108610555977 3.98668460192841
-0.5110663545338915 -0.6082312747099177 4.331276658358765
-0.41515885185008705 -0.629492877111949 4.468432675081257
-0.3947398663976796 -0.6195179296594758 4.404641999575362
0.0959539701776479 -0.5691433220792351 4.043037323829438
-0.5314352575681647 -0.6131770371744978 4.3871364479825825
-0.47151936747442424 -0.6109816314975443 4.37343005822102
0.03553451591299106 -0.5653390774192565 4.061669887615499
0.13559805702893613 -0.5590535173283003 4.022338070806502
-0.3565915099399619 -0.5941702321854534 4.3852747925486355
0.1855654846476436 -0.555138654796006 4.085545379732301
0.09525118357351775 -0.5382623960835181 4.018672899875617
0.1967749605644547 -0.5428007395815713 4.027156574378098
0.13367889470480887 -0.524398652666602 3.9714006725699527
0.2438419877076228 -0.5343662799512943 4.0387363039216595
0.6480131464317718 -0.5405499011447448 4.082543609410708
0.6660704282765754 -0.5445690713450441 4.109465540604221
-0.5078780144984457 -0.5832231587910073 4.436950940197992
-0.29619557821926806 -0.5725609637058355 4.365106981767932
0.06950740107994069 -0.5325606414949312 4.071395407053129
0.16859091572759594 -0.5250008838246892 3.998225328067031
0.2146397215895337 -0.5395432482671965 4.1193431202885655
-0.8992025672721917 -0.5820003056311476 4.505403399323477
-0.5349312541008628 -0.5771010419567888 4.472315588946793
0.24223148881447237 -0.5104393428133573 4.013771718274246
-0.3392417380768571 -0.5491475340984656 4.356152612525553
-0.09567184291173697 -0.528760831355508 4.18825855985116
0.18675172967888465 -0.5160373260765447 4.123942242859805
-0.36448021493024296 -0.5429413497544199 4.390622552112298
0.1789292024434429 -0.5010227581932989 4.090870527718345
-0.4409396772213493 -0.5372866253801969 4.431276171417307
0.4388971815086699 -0.4812359942286229 3.9732739562526165
0.8994547353214108 -0.516113526236234 4.275106581883063
-0.90526107777378 -0.5339060649728893 4.4631269001995895
0.002276435770970864 -0.4902822742264072 4.087977889514751
0.021900582705749683 -0.484300003253145 4.069102597440459
0.10366114978322788 -0.486102566704024 4.082244178282173
-0.5233817017812235 -0.523554417042621 4.44123704714714
0.7128210029053448 -0.4805435418899395 4.14154364190809
0.7538211449578229 -0.480261120877546 4.139283197374877
-0.42526496482096865 -0.5012116730618934 4.413160351225293
0.44583769886109514 -0.45507300333563955 3.976142397463516
0.6492275753808519 -0.4600255703189341 4.089892935093565
-0.321063076695788 -0.4889998517936481 4.404939155670459
-0.025807063252305806 -0.4567334027118207 4.121663256757281
0.17011357612763583 -0.4490893011527247 4.034357525895579
0.9016581014487035 -0.4665480123620025 4.219318194952418
0.6968742625984955 -0.4464105010167623 4.089420041119603
-0.9417218519567623 -0.4843651548284223 4.494333495545546
-0.4600663264601911 -0.47324077466204006 4.399386975421762
0.2601320509444843 -0.44050411911079446 4.073103604906929
-0.290350262338801 -0.46397813965585977 4.382711645701255
-0.4494560524466679 -0.4632497452785833 4.440229024358872
-0.4853595679032058 -0.4544030072443209 4.42957366749852
-0.10792746682342336 -0.42666330930444263 4.13263852358336
-0.0539230729307561 -0.4288785010545779 4.179359717277778
-0.012124698838397563 -0.4263379212935741 4.1575931090820415
0.25314503153926693 -0.41747680595092407 4.080271726803595
-0.040024799329865635 -0.4222762567124976 4.182891335566623
0.015627327747830877 -0.4200575249925673 4.16330931373881
-0.34928239851387644 -0.4395777300248458 4.397227602976765
-0.2794737969708798 -0.4275227581763089 4.3234243063784366
-0.2671666487179071 -0.43172122190878215 4.359627357273773
-0.10866617251957128 -0.4163645564424744 4.163767108714172
-0.06711027492068322 -0.4078396965062935 4.119727874319055
-0.511557391232145 -0.443558852185978 4.532952739470419
-0.4786565888278681 -0.4325395124500134 4.435362694796945
-0.457485183213695 -0.4254456873019694 4.372540109783488
-0.3183136475927638 -0.4294520354869068 4.373237568656872
-0.2968155656418194 -0.4301647442693681 4.379088222155862
0.015607985408224445 -0.39908475537396115 4.072916238450818
0.14649881791797487 -0.4048556393370784 4.120764863809771
-0.0259570343452854 -0.39511770886453085 4.129323675132294
0.17938811758142809 -0.385780170776606 4.103994416544604
-0.41936818978999013 -0.4012784118031215 4.353959262711751
-0.12191305048183021 -0.3790818060569997 4.1118726078898815
0.02950114586911634 -0.3822065798576979 4.106003970955981
0.294747027719558 -0.3802292801209622 4.082706707702416
-0.02526107869320321 -0.3742198865671516 4.097284795438899
0.2504626023451815 -0.37903040344866734 4.135380442696093
-0.45785975434976456 -0.39633329697253994 4.448056443495832
-0.9425142308129568 -0.3928012374565567 4.46351511020955
-0.833933344118067 -0.39062323530395593 4.439813219132718
0.26748459988906437 -0.35963821374672283 4.082561273399612
0.4801792305328847 -0.3529174584466227 4.045591006877727
-0.01226557926042765 -0.3542146846815735 4.136908977871194
-0.35146833474544426 -0.3706148015059515 4.413901068067485
0.001335758464387271 -0.3567955995099408 4.265800192307552
0.06786821884730415 -0.3705002769827414 4.363787740332079
0.09390139356695537 -0.35836620249426154 4.2434200757861955
-0.952416670926735 -0.3669490013316127 4.471365197267484
-0.07599159980009246 -0.3510075173749089 4.246400804766562
0.029189981069981497 -0.3412854697806078 4.145655609971344
-0.4394443448111627 -0.35938767207710276 4.417037533946268
-0.4076591953559713 -0.34613695535858874 4.318461603667664
0.34512515187114745 -0.30509129714478644 4.0444193356741085
-0.4374272857278029 -0.3301147215646074 4.465034542410368
-0.40842338788673127 -0.3310275828732997 4.473914432754854
-0.38690432211834747 -0.3210247087877296 4.404136803100252
-0.326924088271256 -0.31973222469886164 4.38710391989113
-0.3294966414229917 -0.30795061483957276 4.422614828122604
0.4647581021711111 -0.268660778577528 3.9686839297007053
-0.2947049878002707 -0.27615948103650945 4.443483333437207
-0.033201975075645984 -0.2503813209000558 4.145950081294741
0.35261950321844104 -0.24103720615350022 4.046338134103804
-0.39527067179990805 -0.24522009842553352 4.3376174100671525
-0.2845630757000599 -0.2473819899120779 4.409023241015019
0.352667416022063 -0.2179073420945321 4.053836079301508
-0.974390817416604 -0.22168503875800177 4.472731890750163
-0.2703814306483975 -0.21819494627554684 4.4168353389525095
-0.49255839204979923 -0.20694542689884718 4.495945504555568
-0.3657874687426189 -0.20662917120306348 4.420403115245637
-0.03256823924810487 -0.1893043150892098 4.11880700124303
-1.0024527326313644 -0.19044008415317765 4.463991050101406
-0.41032678937294487 -0.18665366517830262 4.341957280901819
-0.4079709637382355 -0.19505201287664015 4.480401043574166
-0.3628346848237791 -0.18323849626731728 4.467015193089541
0.49921193337741293 -0.16360891124554083 3.979270628872525
-0.41861299001017305 -0.18182467437722713 4.515339328504018
0.35579960166915564 -0.1619669608123185 4.081931641510787
-0.37774261804398424 -0.16044224522785377 4.466230086609118
-0.005069345543635251 -0.14999528229954856 4.157598853444853
0.5061053405717273 -0.1403018970363099 3.9763101409462593
0.7746677809386897 -0.1440087438903322 4.138435371097552
-1.04588336472164 -0.14569819228382272 4.489965448940641
-1.0163841744190318 -0.14268043827900362 4.425908848433841
-0.675579303884451 -0.14568933184032437 4.514788853361117
0.37396215074916034 -0.13361429272773662 4.058347052569233
0.47643473607971126 -0.129121748591134 3.9562733815010707
-1.0324890160009916 -0.1359956905633894 4.371041299119079
-0.43213497586268335 -0.13851517882407274 4.489367543719801
-0.46860676971949755 -0.13019248546619172 4.479395837050457
-0.27329274988850916 -0.13085244345394995 4.463149927892014
-0.33068339073444186 -0.12566139968771423 4.442097073477802
0.8355089940615799 -0.11496727290595005 4.168848875877202
-0.5330527686687615 -0.12032229148181951 4.525750009205377
-0.43445140930897935 -0.11794922025484592 4.371944904808155
-0.2807976302437193 -0.11574476971400285 4.4634647591852
-1.051805927866283 -0.11084497243496483 4.485470136873544
0.8247409690800215 -0.10807003961267006 4.251670057766634
-1.0654215544280965 -0.1028336488858286 4.47951856495645
-0.5203784892256371 -0.10189246740001126 4.5405878371022155
0.48682460926722937 -0.0918125924687278 3.9293534863841635
0.8285404448693365 -0.09756026446380087 4.16537572748153
-0.20149093933597095 -0.08945141597543749 4.350603247130614
-0.3890350288261365 -0.08644082282749066 4.509919100581825
0.014898104055601102 -0.076388896121278 4.055025909533272
0.4738321567639106 -0.07865214585013149 3.9303760961913348
0.5067623755919226 -0.07240868350142482 3.9313167846922044
-0.2886362663401195 -0.07063212212157306 4.467998550994197
0.3407114716703027 -0.062180467595570416 4.05834504548512
0.48048271540050463 -0.05770357337948158 3.988948667216104
-0.3242568084033676 -0.058536248135516 4.453648450681531
0.506999267053906 -0.05282629579847907 3.9330979537022954
-0.01215249660229728 -0.047153678858340986 4.228715486691878
-0.46116736439977485 -0.04522885096194057 4.560716349430498
-0.23303968948532888 -0.028265694033469263 4.4117683718257314
0.33654062179242505 -0.02901803896383265 4.088785867555693
0.4776030732863372 -0.027060738041683297 3.960701922160871
1.527117651531003 -0.02735395868949006 4.816684366299935
0.3477274532056256 -0.018416086859608688 4.068670177721221
0.376739886628159 -0.014028082229758723 4.011325400803443
0.4075202966604034 -0.010552284074320697 3.9917686920865374
0.4512463329421616 -0.013631770651506059 3.9615344233979477
0.30907271292103977 -0.004977727765766687 4.095367957023675
0.4779050430633349 -7.155212937668132E-4 3.9631385896163915
1.5510540448221106 0.010895231140578228 4.890931452671985
-1.0009140315927305 0.018126312038170847 4.296796694998062
-0.18702543662339466 0.023968206218623368 4.362661936844436
-1.113480892559085 0.030791454655731382 4.554940483429708
-0.25354138721882924 0.03028106744868926 4.518606480143329
-0.21744515225583272 0.03132588644107182 4.390059460614439
0.3481331703817326 0.02908575796977994 4.073476244243442
-1.1220366723647444 0.03547190481155973 4.499925842394916
-0.2415390103437592 0.041149176074949265 4.565796136312206
-0.2122274571776488 0.049367098331848415 4.4536383635036705
-1.112767011105685 0.06211295741910549 4.520028291775273
-0.3899660760299017 0.06217561714500304 4.52476520998183
-1.0649747661767377 0.06604618376099487 4.417181424506183
-0.20751508055750134 0.06792240152645776 4.499025805918187
-0.20024057120306354 0.0905856536178085 4.50367391638646
-1.0866900919945488 0.11581456013222244 4.50451187506723
-1.1153117443156986 0.12048338255883842 4.563752722885106
0.40356483946476035 0.1101170357814244 4.083533716330739
0.45838813533502076 0.12308770600060268 4.085698925729163
-1.1101334926588642 0.1517453451839147 4.5733015357780715
0.4790289158562164 0.13645728167892326 4.0870403514662605
-0.7147663162561958 0.1625465381974165 4.575704154473707
0.3219943755588278 0.15533002397381251 4.079335619406006
-0.6448743713029006 0.18479607423221706 4.567169824479094
0.37261880873811326 0.16898295549877884 4.110084091446805
0.39456774369449676 0.1710051251008617 4.062102317394385
0.40824209119786514 0.17762057774788456 4.063076784517344
-0.6235724107341418 0.2080566200917415 4.578550987612867
0.3105338543996633 0.18709441188870313 4.115140959597879
0.2612684217361523 0.1933103261984479 4.191854251635879
0.2811704658648507 0.18997094605481907 4.080634935733205
0.2672869004265326 0.20056059530063283 4.086401523253835
0.3824912103834432 0.22531079058372933 4.1552367125792395
0.39099121049048796 0.22642153029220607 4.094536100965398
0.5669338896380041 0.23063050386047487 4.1832540589312694
-0.019044844652546022 0.2417559701215734 4.256684571590815
0.32258694048349057 0.23052115322415473 4.08690862351656
0.586680720366659 0.23509526758401875 4.126955925581663
-0.20766678692456048 0.2722015550725687 4.492520508009821
-0.41616788283681705 0.2938451522358969 4.6552061204836575
0.34338188809859227 0.2576551128199762 4.0904517845806945
-0.842723029200912 0.2962480131055305 4.569860418826613
-0.3538388076804812 0.30411555734462836 4.643206778297725
0.48051092016733005 0.2662316556802211 4.099107681999279
0.49089382126223885 0.2623267021721912 4.01849413599152
-0.941980424920127 0.3071880588213952 4.607518230508563
0.3319725505736061 0.2765684081236244 4.125153390982921
0.41705122522853555 0.2701508779848033 4.018828841077954
0.5216291956615574 0.27242233763534995 4.09912863755942
-0.9487733318202047 0.313086747989748 4.565212204250585
0.45014384002922314 0.2790509741649967 4.07324665355357
-0.9140928964547363 0.3212378125767014 4.582753910638504
-0.6613484851635 0.3288694639986967 4.577442815865294
0.532040995676949 0.29506013579159623 4.07938407338357
1.5457538204597168 0.3683289490100503 4.923756907276293
1.5370441625073719 0.36357425772983554 4.845318414324863
-0.9195962335444586 0.3461211142719776 4.536642019647414
1.5052906900510472 0.3755215566177807 4.899475036907678
0.536143781983963 0.34068591738493537 4.10490611095446
-0.13346382173111737 0.38431784675687863 4.548116107654974
-0.8607495665029267 0.40615896195985834 4.582373312445015
-0.8475994449460904 0.437952796425085 4.593701198981703
-0.08956400983631946 0.4375427025232856 4.604646612161506
-0.16738071853370406 0.44854406219489157 4.629181625684543
0.478442493690355 0.39890856978893574 4.138821740531765
-0.11266035424522974 0.4532884575297014 4.603192328264276
0.4401766019621358 0.41578038973266623 4.168581283322943
-0.7641828238062771 0.4994076859985086 4.598900765149325
-0.1051718551935314 0.5001734116296638 4.610449124440422
-0.1274358668949378 0.5126258135965686 4.573542587371529
-0.7648943339675458 0.5231907941711185 4.602762705784418
-0.7288891449165225 0.5470353448074267 4.5735003039595075
0.2987519379312138 0.5111400211491152 4.226434693312948
0.16929813750164835 0.5774142244274655 4.5529121012356475
1.135812806702552 0.6030204125028108 4.755175656923603
0.3201048782214105 0.5679692797663619 4.327973187435667
-0.10356332928345413 0.6516505384204564 4.552998786179172
-0.69078572059469 0.6778210987542304 4.571421153323554
0.37527468595630115 0.6608483152529946 4.469168550076069
-0.6843229566634312 0.7096558307102054 4.5788661328610765
0.7830836228173037 0.722869111093516 4.6333030796704495
0.9112970602757374 0.7603905943570322 4.700731470818129
-0.6730267324914195 0.7521802299298267 4.55260988058073
-0.10329467339262122 0.747778646090983 4.53120984050299
1.4458050574435017 0.8073132554862423 4.916816030864875
-0.1250567550651248 0.750574259158875 4.520837261223546
-0.13452213219279513 0.7762942971278566 4.564451311431948
-0.6448133151810256 0.7924579305980323 4.5682347557465945
0.4193386663708621 0.7729344893784462 4.385465610487561
0.9968233767689276 0.8545828298249359 4.698274463084239
0.4154571504597878 0.8153120173961533 4.420569578410478
0.3686078533444986 0.8287144417171872 4.384572606193385
-0.312122289976753 0.8608852975467755 4.495596558005014
0.9752489689452439 0.9108448243571639 4.707284045175075
-0.10979359273424616 0.8764429089812716 4.5053719717252045
0.38348474603221905 0.8505425334295982 4.386482200407933
0.424414199768824 0.8562125487839698 4.362731938428271
0.39385142579855914 0.8757755092899381 4.426875464172397
0.8050071683050006 0.9085085160541295 4.584949046848384
0.44573145567342776 0.8866679059291988 4.433484335022996
0.5009733575125405 0.8739521712383094 4.391802823977039
-0.13299822651930848 0.8614572915830543 4.271750245867222
-0.6220414689317981 0.9175730323039977 4.5148237788908885
0.28947212583921056 0.919237066114329 4.527787947803235
0.7643098538909023 0.9468689055214998 4.662565510580519
1.356117596320546 0.9725399449472341 4.802454759290201
0.3149635697681525 0.9140103469376927 4.462866894014441
-0.20910325199320712 0.9368411576057576 4.531969121079915
-0.08685512710581572 0.9242518896222428 4.481239452553405
1.1113551195479294 0.978070693302985 4.714692889570573
1.1391424997081652 0.9680332636283403 4.608294303758073
-0.27382206769959166 0.9479123602702278 4.481068190292532
-0.04171618007835892 0.9484227381516289 4.456921781495699
0.40625570983078074 0.9367037173281606 4.40141690414017
-0.06297933542557455 0.9597022985610457 4.416376449444926
0.36772881391245554 0.9783111430192111 4.475957063186259
0.4107703622571502 0.9526934002163123 4.372204619091483
0.4432341156782662 0.9577638194873055 4.402184465983382
0.47269256551268224 0.9618456488214848 4.408309483110536
-0.6383963951937327 0.9957995370834126 4.522146100358553
-0.10205458111332827 0.9858732908517358 4.486890746587901
0.39481100439116373 0.9860302505709099 4.4444982479421355
0.8148524259416847 1.0209755917523031 4.599829161274996
0.3858850177677368 1.0018312002490808 4.502653620027558
-0.07914942214273807 1.0021431729151349 4.4590962605546505
0.22967251337952954 1.0231744161795504 4.530256412547192
0.3875911852381758 1.0088848485069584 4.446878999019223
0.4509694373482922 0.9947246545754836 4.405279738966534
0.45112579052314733 1.0096305471373885 4.406644889188315
0.8209899954247424 1.068706303678429 4.628896191668774
0.7688973564812925 1.0856051290865167 4.646503439458949
0.42510961759745164 1.0452453328677094 4.4492590990507335
-0.5583979887438586 1.0622017030409339 4.485185810903288
0.4104695581993224 1.0684404809144477 4.4519751601477795
0.7763408078640719 1.1106214137159323 4.639666578577437
0.8239405727223391 1.120715094412756 4.60626272015014
0.723552159492036 1.1375457326998328 4.649891565021497
0.8011707694439003 1.1398031922175762 4.603923807767701
-0.0935453195121893 1.111803184735588 4.463080342855552
0.1644245992333893 1.1487915392860115 4.608542997203664
0.8320347848055305 1.158770168924035 4.607823247409141
-0.6162385559089155 1.1328263628588897 4.471929610447973
0.16175388795199552 1.1486800601136002 4.541848757610388
0.3664129200425432 1.1251071070781813 4.451552200418661
0.40361894314805585 1.123661375576629 4.450254478437898
0.7639862275867313 1.1656700056092832 4.612053064482646
1.1155277192401605 1.1869704973494712 4.699775222900915
-0.5928719439246644 1.1357140820372205 4.470796815756724
-0.5815814473894337 1.1586093979235592 4.555265479494922
-0.5611811584273099 1.165232690451431 4.569978307250138
-0.11768460771261452 1.1484418777312353 4.504859391846605
0.2964746533819923 1.1505160750149552 4.518869731805647
-0.4557735333908388 1.2360458914200256 4.836743944416926
0.44840240223659467 1.1424559288865268 4.4573467651922005
0.6956890782935361 1.1799847403286012 4.615321505677413
-0.4798561202517631 1.1501689451818171 4.450205037062883
-0.3662233263419121 1.215662366814632 4.710116399670808
-0.07827265850588622 1.1424461705669595 4.436453940861184
0.973773737615366 1.1921398404323145 4.623227110096711
0.29684565052606343 1.167845097983283 4.512902587022811
0.6303293340159454 1.1914217498221245 4.591058352939341
1.1527733712851491 1.2142766987419271 4.6905795116100135
-0.0787444598418226 1.1656265896753712 4.471167382861389
0.1226980761318725 1.1803036403424436 4.511022205254932
0.4263188791397129 1.1661212962525334 4.46058940108872
1.0109053813766122 1.2215892316149346 4.685949455558212
-0.04209070944150445 1.1788687036047598 4.484143840823832
0.40405125275111026 1.1690120857499324 4.454493836382817
1.1459210715662385 1.227683437954912 4.666205411068459
0.2195119705716263 1.1853403887121476 4.482457490470915
1.132466108487714 1.2460595913570898 4.707061908993979
0.39982330547163625 1.2056995863423192 4.497142129015266
0.45630976290607117 1.1893403162682818 4.453765984636186
0.30973007127658686 1.211169517788935 4.492662132833016
0.3323024827629354 1.210336452676396 4.492215977871574
1.0484782793306473 1.2555813945097745 4.643560587199655
0.3070764187035935 1.2434535353830543 4.5606696583929
0.31737448177303895 1.2262125719186998 4.494041423357297
0.3273778327918274 1.2094553961661068 4.42928140827044
-0.042002699300623725 1.224597260099972 4.457325652705561
0.9750883522384994 1.2693473415306866 4.628321285886159
0.7806793209256936 1.2730505185216285 4.617749952265244
0.7355437687606131 1.2843443029410435 4.626006403442906
1.4079798901974114 1.3321574303289696 4.79041807770411
-0.6099361729402946 1.2528878429512198 4.483958521336669
-0.0894318022883151 1.2921448042930237 4.626420078453393
0.4345586119056829 1.243353370775301 4.459908013483467
1.3521385546264628 1.3273770073187472 4.736294629867783
0.2368855451371349 1.2701304719521027 4.523450189998511
0.78103198493827 1.2963269277533547 4.619484753982114
-0.05701270248642376 1.2631632296475723 4.4603611395779375
0.1386745264337646 1.274698250006856 4.5143045699155175
0.4832624483749527 1.2534478728498222 4.434172813641673
-0.09405133397853843 1.2738891159894181 4.482457029992979
0.5054715814887294 1.2597798759624745 4.433154834503685
0.7380388836421422 1.3061171602997197 4.593743559097305
-0.5266695576546998 1.2967993885734104 4.546070609463225
0.28994713248276127 1.2974664450694997 4.533676691488921
0.3127347653328628 1.2965858948848494 4.533221521922825
1.1575926399569254 1.3513323240773336 4.714512063066022
0.4020974806188242 1.280058439740756 4.440973080740803
0.4613460435776087 1.2771814811158937 4.437700615638799
0.670049058462115 1.328378436722352 4.597501744786985
0.13881179155211715 1.3134479154196033 4.518450954342497
0.27275426770028777 1.3123384677217929 4.503080565182632
0.3754186532177696 1.2992948662684527 4.467846556607982
0.6351027650256764 1.3293754844565524 4.5690456710610485
0.789255668187684 1.342275301874599 4.621547855876835
-0.5809852563191582 1.3331339307880077 4.546566097518969
0.3204270027015501 1.3332541310479882 4.5441697284734595
0.866032885797335 1.3399127336628782 4.581399364280244
-0.5589508331230951 1.3419725061701382 4.553487848180759
-0.4918742827182247 1.344187941045308 4.56966705789826
-0.034042162273089815 1.32904862362349 4.526972362374652
-0.011466267535184038 1.3018259282939846 4.429700406646388
0.8513497078790462 1.3489656045008545 4.5849753755513865
0.24461970487781676 1.3456564080095172 4.538809919397199
0.45434592784312705 1.315272834554028 4.441560221437618
0.6354118881339567 1.3525357444150317 4.570935424103461
0.9173955620840634 1.3760180943079041 4.649023536586786
0.131325561746456 1.3446917125862365 4.521556176584384
0.38769875798296 1.3202600741699384 4.43810980077638
0.4130308999943798 1.3279315441744506 4.4687949137943574
0.524761531814546 1.3277594874968586 4.468654017904242
0.03253287138346622 1.345477022255968 4.445375894048711
0.1676311999804872 1.3714807691021822 4.500834505286439
0.3035831520608535 1.3666359802534525 4.500351363009171
0.4028147775541545 1.349773879152964 4.44014575561181
0.4324560712098436 1.348239979497098 4.43840639806139
1.4653785313373593 1.467768825175182 4.820791777118722
-0.10809042060708096 1.3561420258262498 4.426854613278506
0.38347888931275026 1.3735326375886472 4.481888749266903
0.37430847318520194 1.3944721811072722 4.540588822638072
0.4663584804620228 1.3642138347314088 4.4212831523478435
0.6813477070293066 1.410845039925161 4.569467328147895
0.4286464968612647 1.400160595559989 4.489311574482991
0.4882858718144015 1.3907249338356662 4.477158777334304
-0.5852129193879956 1.3956774825882516 4.469604008808413
0.32405564400631137 1.4023364979211619 4.471651972652251
0.4370583921185294 1.384031019920657 4.410609590722651
0.23572383484390902 1.4372579373899086 4.515780687541492
1.2112749746529454 1.4931443299114842 4.705786883745194
1.457571402364215 1.5275068566000563 4.7970819800803906
-0.0776984711962358 1.4112448912519093 4.428769112029276
0.43223021126085437 1.4419556870587615 4.517465608463443
0.8017402988341515 1.4759114473967856 4.611662839291934
-0.04959581084755782 1.4310330155109479 4.448671618238238
0.18311034894623218 1.4483984930201177 4.509136240085959
0.3341128770925012 1.4547831947285184 4.523321616152978
0.4021465758749729 1.4450333643604094 4.511725714442398
-0.605188967822244 1.4527051009560845 4.50695241524082
-0.57891314452689 1.4432891027884125 4.478228620147681
0.28153868385837766 1.4523646060030657 4.509181139182076
0.31159988530520755 1.4573385174795375 4.516749258981333
0.12258141880002416 1.4657126359947947 4.5095176152717
0.770779308883837 1.4892740392413257 4.602330616154136
0.7346158894926373 1.4653357153933657 4.483993598826183
0.8609003523888934 1.5196151635486894 4.637259547109569
1.2640309792456357 1.538861355969872 4.698626338299152
0.33196834430512423 1.4771440748080797 4.486234841527234
0.4100599301019604 1.489477755343068 4.523178768223158
-0.5961384899836651 1.4886217300957638 4.488709333914262
0.7720208488200041 1.534584829995724 4.613740736148208
0.28928098302633387 1.5125521831965598 4.5226792745006215
0.4454137301057913 1.479979710718466 4.42597444937948
0.45335218133345023 1.453792368129714 4.355451890012939
0.8043409532746875 1.5347198600766008 4.582218225877221
-0.5802012048439223 1.5065779853044887 4.487231566000399
-0.07130332778215381 1.4944252221780912 4.446667127389688
0.13838833181817095 1.5133106957105138 4.50742674982855
0.18343957009017697 1.5182259031276442 4.516342752704129
0.22893722803668914 1.516503297380456 4.516240191758771
0.5117373710002586 1.4832626924679306 4.421105826205335
0.7725980397776112 1.5734691088405184 4.616578414327403
-0.5693313885164852 1.5276881025579367 4.459465004329535
1.0505955075443851 1.622065187762547 4.727457639774929
-0.540348799529488 1.536761472323033 4.467604057878716
-0.5283564587400822 1.5978976868015904 4.624577351352533
-0.46203076770759144 1.5320641418477798 4.426591987693135
0.44526453491060636 1.5602347859838548 4.502899922711054
0.6873322647175777 1.5980793658625916 4.566260378841999
0.8718247099007597 1.614962527117934 4.615818085048959
0.23477904626818058 1.5817288289110474 4.498358225016384
-0.5764424957518473 1.6009720271956953 4.510069760171405
0.3629868551005344 1.5907629491041213 4.495547979360976
0.3253093665670084 1.607058885215588 4.506248694959109
0.7661141461943353 1.644344411441631 4.623089797835247
0.3431853138523878 1.6183906138157929 4.530884905814413
-0.6045769622831667 1.6248303780367688 4.498602596973635
0.33314413996405295 1.6232831160796932 4.4999819136638655
0.5895012527983046 1.64781553824392 4.568341138117769
1.0355278649274955 1.6791963682249633 4.656305060420287
1.0579038847670301 1.6883746040311065 4.685413688207443
0.2275442091921529 1.6362492199870886 4.503847957845761
0.2676508260856152 1.6390425515953937 4.527655689873816
0.3858547056643852 1.63449022206533 4.506014082041096
0.2654206886698255 1.6500154283482282 4.504695969543627
-0.07953388910809378 1.653031182547659 4.495999890882895
0.33587428657813606 1.6721651523949903 4.544058838408409
-0.04164091014720683 1.6488821307310164 4.466594840053183
0.22192793044376796 1.6791374473530776 4.540231714203943
0.46476251359533577 1.671434488049719 4.535324654690808
0.7368594394073997 1.710065457136439 4.633364631571571
0.2752861184496592 1.684378880758651 4.5397631764845245
1.03642356905321 1.7336480075632743 4.65940403220033
0.11622039579611393 1.6933529078944105 4.525814949485902
-0.0341744002857316 1.687610590198251 4.471431682520148
0.640875775662782 1.7398495817428121 4.60972578377563
-0.012368125750751302 1.70172310498303 4.482011454840173
0.1391323949064615 1.7159901445279369 4.528472971678425
0.583009898980788 1.7339143305117417 4.576218393657026
-0.5752397124997113 1.715116419209214 4.510239436477583
-0.08722925928653441 1.7158200388559783 4.502584871484985
0.11631908221890558 1.7246753717968468 4.529084372646961
0.18451925374434275 1.7445022683353792 4.539396634342031
0.23758831736008207 1.7488670220750646 4.546954287948537
0.2909517960119975 1.7460174381028037 4.545180501625551
0.3442116510338198 1.7427875241390784 4.542372603266377
0.40491997440639177 1.7456622366937924 4.546766101048981
0.46917573143627 1.7600586258959774 4.5830868739136
0.5299993601393616 1.7549951049084922 4.5762257785694045
0.5836395804119268 1.7641767304256142 4.586554616120643
-0.578828135768876 1.7263948230239559 4.477673850683458
0.49210565139104606 1.7660303762796559 4.581328220088785
-0.5845984859727723 1.7808292288934156 4.585811402641002
-0.5408867749630388 1.7639452467389514 4.533398203865345
-0.03499310375908199 1.756745097445468 4.486677256177924
-0.5708442118204113 1.7787697906023743 4.528927750952995
0.4848316135776722 1.7979477061374285 4.584810917169828
0.7909732989015046 1.841152397795708 4.683382576116579
0.7393853961938619 1.850525574873122 4.651741628621747
0.7981784546195223 1.856714208239152 4.674713080501778
0.8285776006939196 1.802344987167466 4.506627933848787
0.2836969143376432 1.831744390629457 4.561370306593621
0.6858227706478934 1.8652430540683493 4.654163688949732
0.8135386934674189 1.8705177407051274 4.6724139701521175
0.8225045211888702 1.8558626952849908 4.635405371056258
0.3198396719255663 1.7452357019078364 4.329265012498224
0.4777123844272562 1.845596360501918 4.589625216210298
-0.5511504496929505 1.8153929667700062 4.496490194329074
0.12382096116409402 1.8413837223851894 4.549071202009477
0.42423121717478574 1.850612213444322 4.586854629035791
0.7910636568776324 1.889258870177402 4.678537740147612
0.5238978645940837 1.8722497642785938 4.594959314614909
0.5817841830872345 1.8872320377721512 4.6300524191731025
0.7827043607397497 1.9276866351199045 4.726311762976497
0.22335003061568331 1.868147772339742 4.55107111401958
0.4518652546426366 1.8810113755525406 4.57050444863383
0.3939805789326952 1.892371449535956 4.593124699119206
-0.4669387320679146 1.8543761760703308 4.469428433811324
-0.10185025304307488 1.866338152991881 4.510703515646283
0.3250386474206724 1.8979989212305268 4.590131701065459
-0.5561581875387382 1.9647100940008135 4.733985698940785
0.8831669148264373 1.9392940277496775 4.669808994930273
-0.1019142324251116 1.89001654540398 4.513393374849839
0.7578492940563972 1.9940029958838403 4.762832819838306
0.7635603654103194 1.9500242176854135 4.654447547165365
0.890944396788608 1.9983635052321638 4.759263320324695
0.9670270126297643 1.971749332914338 4.702369309133303
0.8157271918782242 1.9726901189876433 4.687773125468192
0.8200318953891064 1.9297765028909093 4.5825118757865
0.8919387325125971 1.9692218067684184 4.678279885612678
0.9290911976050442 2.0005417318529797 4.749794216684893
0.9302676718273233 1.9708666509066755 4.67709268346584
0.39442245189216296 1.9470917618740098 4.606172569243208
0.982190724627825 1.9850863366854934 4.699040735745607
0.8407404486027461 1.9780354842087073 4.656517375664332
0.9124572554845938 2.026485422385366 4.782875097973696
0.9139162457154989 1.996285521065444 4.709361958347094
0.14969596317853068 1.970559069336341 4.627936041018384
0.18701457395945764 1.9546979711764707 4.59282989800836
0.8839809738647602 2.01682631569538 4.718291412269812
0.9295938752753043 2.0325016635328486 4.751812674651038
1.0048248968082658 2.035187513177804 4.766881304906467
1.0048519890195946 2.0049363540625613 4.693808557146352
0.8238838982645958 2.0111781979008607 4.688653725424194
-0.08728122317051418 1.9388448654381212 4.495977756784455
-0.06366550498045576 1.898612609523893 4.399732541739465
0.5798810103502351 2.01249677675121 4.674126490853862
0.9368770521235004 2.0627907856371035 4.787891497227927
0.6989585683793078 2.0513874310378126 4.743534021947112
0.8987301530803091 2.0770549882337113 4.798882108467879
0.11092021423614679 2.0126279664599998 4.632407698239414
0.92185102925797 2.081416165798068 4.793155788216571
-0.44526997686439673 1.9871255707402546 4.557303853132711
-0.4136134886796603 1.9454550810662923 4.458832041592567
0.23711915919513077 2.0357859387782766 4.674080795629994
0.8286199367209175 2.0961887242142385 4.808522155460853
-0.11340582269014204 2.0423145580253355 4.6706234046880395
-0.07223277275807694 1.9700740324223989 4.500475553029816
-0.035053721118444126 1.9627767866523458 4.477798808213437
-0.020008039090933516 1.9644052731834913 4.4475514080918765
-0.004703611008051389 2.0055435128777512 4.547654334547876
-0.03441475082575374 1.99283532499913 4.505065966865152
0.01795733988086151 1.9986992885644221 4.515705837995807
0.2509515132318447 2.0524729484055504 4.641579329276199
-0.17131326506125705 -1.9828295404635996 4.908559542941683
0.6182535898479891 -1.60550360190536 4.072506890213195
0.7269240956552105 -1.7349464638870515 4.40230884089806
0.5167501792464688 -1.6139463679323112 4.129650309242325
0.6051415794206799 -1.5777875237633985 4.079010803133617
0.5030096712410319 -1.5450637501276125 4.017479073704505
0.6065001225352362 -1.5229115890651421 3.992707012806966
0.6331283326236044 -1.522617179935918 3.993383193510301
0.29434417281074876 -1.5069369286996928 4.091564377873098
0.4467855155577602 -1.4680947303049008 3.998044237516186
0.5675896332599084 -1.4460134967203386 3.999091646025642
0.6836035207662297 -1.4517679073006715 4.056056837943742
0.4339452196878453 -1.4163819514224816 4.002533865108086
0.3621541311918832 -1.3848899881026098 3.9406575924967093
0.5533574949051461 -1.3568905681897052 3.900776336425219
0.4182978424404407 -1.356863039636631 3.9760731896572046
1.019043855539218 -1.463140524082425 4.333479188603234
0.3450528075035861 -1.2919737025564386 3.8915319912450808
0.3843738808505204 -1.2800948761944992 3.8968764250426724
0.439627788599173 -1.2895598744381478 3.9269816175685803
0.7699230405399451 -1.2875161159132158 4.0146775260513206
-0.5587263137016824 -1.4078024653940049 4.476454548240799
0.3849749462543871 -1.2169213616159082 3.9036067917093584
-0.5691549678606667 -1.3658984848761395 4.4401938371779055
-0.4885311101427665 -1.34096215791203 4.389351209606658
0.41906646912923007 -1.1634098228651772 3.860471519107138
-0.07422944678498683 -1.0321527856292052 3.4624771884472763
0.06058241051037516 -1.1855951851062099 3.977052469346305
0.5745614307658027 -1.1512729189890543 3.8701399195786417
0.2528392018987094 -1.1429450694331214 3.8703976362287174
0.4322880449580145 -1.1384597091902326 3.8640529137823516
0.6215647475354958 -1.1539373361969805 3.922301764276045
-0.6118960266812304 -1.2765997313704143 4.4308584700455445
0.2642654297698206 -1.097921096070969 3.851072483449495
1.2986674655634363 -1.2987804325941652 4.716503574947166
-0.6661712422458326 -1.2398615850310046 4.607511140464355
-0.39971712914598395 -1.145744068172797 4.375253692880752
0.38164857794274487 -1.012059494780468 3.87291883607281
-0.6262086613768035 -1.1490268788762594 4.433627643001743
-0.47729542700773775 -1.1438932028503541 4.420249826663626
-0.11431767934834136 -1.0253939239643934 4.0740563781052845
0.31699115044129667 -0.973206992863859 3.8707355916155963
-0.22444737509904517 -1.0210017081947382 4.105640599462146
0.2043703977716682 -0.9505260649289067 3.942303735220328
0.6033000107941172 -0.9409127346311661 3.8824203532228037
-0.18713525122819852 -0.9571510558178635 4.187516676662037
-0.10198562896838631 -0.9396779444268247 4.118563064324729
0.46419396081666636 -0.894425029811977 3.9122000929516005
-0.40927125167186174 -0.9733910974632408 4.322081732976301
-0.018391045011374396 -0.9134225609337465 4.041834697726984
0.3829752741137146 -0.8727582631254718 3.8873753298026754
0.5393256533905274 -0.8778149509135471 3.886961707249041
-0.07543301450809603 -0.937337927094932 4.2123247679382585
0.20085213704116245 -0.844158332218718 3.8704112656118097
0.4647809322311734 -0.8432723478187796 3.9173184347600962
-0.49439051708099313 -0.8713277914787425 4.445457356065477
-0.01870926079421331 -0.7938666585757039 4.056938327501182
0.1172269939180623 -0.7579983006533073 4.086043796786857
-0.45258547145618694 -0.8155336711196111 4.469757799550614
-0.3846567749154683 -0.8011483854628091 4.3795390369502005
-0.005306169933834093 -0.7409206905382975 4.06630877245178
0.020910726803506918 -0.7199743531105561 3.961386131346989
0.04658474370810706 -0.7103010235255387 3.9132657357461293
-0.41047407585824014 -0.7643393113260903 4.341733563807402
-0.7721732052463406 -0.7623609784752832 4.422429656894152
-0.4611081354323277 -0.7430749448641497 4.40523612316763
-0.01910354234773659 -0.6331310800623151 4.0770466238297445
0.02168538707023504 -0.6073614331068484 4.0879928102454555
1.517737565016629 -0.6846138363854506 4.713802960406593
-0.4954659925023974 -0.630192116341397 4.447682860639639
-0.29364144601526193 -0.6036198183626558 4.327344367520285
0.2391467763474447 -0.5275338355265562 4.061408477584721
-0.07350750193662525 -0.516797139570148 4.104527203771286
0.16198139677108814 -0.5126714248219647 4.174281321456818
0.32101217082589145 -0.49913992242788985 4.077502806246526
0.09144490637305325 -0.4935919127518105 4.137219981477402
-0.1305838295762619 -0.4794291955900797 4.16222915536248
0.44574655311413514 -0.4589827692130821 3.9805753066328675
0.942739488651792 -0.48279626626976047 4.183770282798098
-0.2828236341743893 -0.49333620000405326 4.380469673391479
0.009037354666966035 -0.44977584595709896 4.0941992565454735
0.24457443277292124 -0.4550177874744442 4.16095329180715
0.44907265204220914 -0.4360631024194783 4.0095477808806805
-0.04552980540869617 -0.43488871800466683 4.085821766244337
0.3466610776925338 -0.4313680179187155 4.053620649230517
-0.514417970945142 -0.4616987394788416 4.491507961891767
0.2943344135735824 -0.4044748499539383 4.08542479796053
-0.33616716000356994 -0.41127441553175115 4.309917877092955
0.022657008523797484 -0.3956905514392939 4.103202850094854
-0.10142314759626725 -0.35804926507265156 4.14294264822904
0.6740692054388162 -0.34137761857320653 4.161141247831799
-0.4080615393944911 -0.35342829079668636 4.470570364949552
-0.8878075599877548 -0.33885176397890826 4.415209665950024
-0.020120765590823375 -0.3237808065839983 4.297669951816037
0.3452659895156025 -0.3079620104350802 4.039025253957566
-0.9429859610135962 -0.3283095017979138 4.467773699858848
-0.43616612810782196 -0.3257453439321263 4.458982233999593
-0.3294966414229917 -0.30795061483957276 4.422614828122604
-0.2254099240842009 -0.28713997393705903 4.390676210358056
0.3482618401463773 -0.2430995347675498 4.073200439987729
-0.43600775375186124 -0.25424262906930106 4.4626889668628165
-0.4412966661868556 -0.22338133288053263 4.509661445215419
0.7317651819444808 -0.1765930290782841 4.172648750331069
-0.429158886818444 -0.18365460592732288 4.548487766513538
0.3602362607698978 -0.1469656628873217 4.056321005187353
-1.031029903082635 -0.14417880113455855 4.457713394730103
0.47298120674245525 -0.13041324071330035 3.982003065280794
-0.46713995245359635 -0.13359536596767516 4.472005173747742
0.47011689585294975 -0.10280206246839077 3.9586284184610343
-0.018378548123243355 -0.09736132039288282 4.1558580002446925
0.3608330693382513 -0.07947631206753823 4.063161639214611
0.506999267053906 -0.05282629579847907 3.9330979537022954
-1.0441760221883571 -0.044770302314903004 4.454169673617874
0.3182097927909424 -0.04089256221524877 4.032260458056425
-1.1525438421646257 0.015981910385981977 4.529083691502984
-1.0734027965640427 0.016443905470766795 4.450687595158637
-0.22627837574422405 0.0310700446374459 4.421525240557761
-1.0973507088526147 0.06213288860894567 4.487411700172565
-0.39735272282885614 0.06226239865546213 4.522751533420494
0.37582753715547335 0.06957741757771246 4.078684524828885
-0.20024043590117113 0.0905856509775515 4.503673415022836
0.43076948078882393 0.09617702049032135 4.082779596913333
0.33081916236289116 0.1509187514753455 4.030880996907035
0.3082837299306665 0.17953755778417063 4.086677011601951
0.3496516901006376 0.2064119039404223 4.091272572516477
0.3911193890568182 0.22962148976862462 4.0891269460265525
0.5727647408988809 0.23163930126281645 4.121406963977828
0.3410793573916917 0.24996889649840853 4.150776753442337
-0.9693909449820318 0.2911858006751368 4.591507796830503
-0.2521516332846231 0.2941073477121271 4.62791318875391
-0.9319929052579284 0.30109831260991293 4.56170873896538
-0.18682237570105592 0.30422880250625617 4.535506897299557
0.45904341107634034 0.27883175350863176 4.212331213559407
-0.9055339681572429 0.3440807133389544 4.5038085539199635
-0.1591285709821837 0.3543914337181429 4.617939746011288
-0.9516907779242687 0.40610995878262035 4.736842482607247
-0.19012915575845923 0.40152980421121814 4.618779314433141
-0.8378763328543941 0.40715629249198343 4.5446694736705275
-0.0056504201614806515 0.4464646487432017 4.589597242301344
-0.15977073860026564 0.46424620026829605 4.632588022681429
-0.7429405511588221 0.4806120250057704 4.51950879372487
-0.127399510476212 0.5048525306557446 4.572534953922659
-0.09598056876662009 0.5001374738409317 4.569062106512158
0.009969203316935515 0.49769928537360153 4.522053349676887
-0.7414046136793457 0.5347343216018857 4.604825606693321
1.3926290667897043 0.5991461989241218 4.8753421309718
0.17306952617542942 0.5619647478635128 4.445622726287971
-0.1608466256090949 0.6540598764707436 4.657679195095519
-0.17317947922997534 0.6713335920452352 4.606319651320564
-0.09751215709218797 0.6765055992196346 4.599145132359003
-0.6724263806350333 0.7285315964215621 4.5489553458886895
0.4187511550519667 0.7185029201965382 4.386892484924644
1.4585587568691327 0.8229632987068098 5.047788240477468
0.7838159237476485 0.7693114467198002 4.63704178374484
-0.6253450208107021 0.7873034333636337 4.537098493513054
0.40451809547839424 0.7633124290885772 4.3914672425527375
1.4251817448480577 0.931020034201457 4.821430833050643
0.9820940235713009 0.9206061395936125 4.6984713030228855
-0.07935945032134517 0.9242272716255643 4.482156878059789
0.9981882295335314 0.9820870471383334 4.69923368572326
-0.04940290017673643 0.9548557416850258 4.489326512144164
0.2976089905837821 0.9597798095489387 4.5242897221233775
0.4505621640607737 0.9552118173082913 4.408637864937631
0.37728501631237654 0.9771692139055405 4.398732302232126
0.774963901924868 1.1086366868200512 4.682127403968701
0.13331878254914958 1.1022268846561625 4.602305687757743
0.4104695581993224 1.0684404809144477 4.4519751601477795
0.17693598215275924 1.1327968174822063 4.540626801437311
